# .PCD v0.7 - Point Cloud Data file format
VERSION 0.7
FIELDS x y z intensity
SIZE 4 4 4 4
TYPE F F F F
COUNT 1 1 1 1
WIDTH 1323
HEIGHT 1
VIEWPOINT 0 0 0 1 0 0 0
POINTS 1323
DATA ascii
2.3995774 -1.1388899 -0.61321658 7
1.4091927 -0.66883248 0.081748769 78
2.4048347 -1.1418996 -0.517474 6
1.4019247 -0.6659826 0.13578865 72
2.399657 -1.1404678 -0.42080876 7
1.4019368 -0.66658825 0.19060367 76
2.4218149 -1.1520349 -0.32929099 5
1.411014 -0.67120624 0.24747935 74
2.738153 -1.3031001 -0.26530206 5
1.410985 -0.67179656 0.30376795 61
1.5038244 -0.71632111 -0.087296382 8
1.4091169 -0.67151058 0.36037162 71
1.3791699 -0.65723944 -0.026667278 93
1.4142268 -0.67424858 0.41980451 51
2.4135613 -1.1548313 -0.71692878 8
1.3889589 -0.66458356 0.026876707 83
2.4063342 -1.1518894 -0.61591601 7
1.3870347 -0.66425806 0.080597378 71
2.4008343 -1.1502869 -0.517474 5
1.3959981 -0.66914982 0.13544002 68
2.4101126 -1.1552497 -0.42331171 6
1.388979 -0.6660834 0.18914123 74
2.4179811 -1.1600596 -0.32929099 6
1.3944156 -0.66928935 0.2449764 74
2.7605283 -1.3255869 -0.26791674 6
1.4069796 -0.67562199 0.3033863 69
1.490639 -0.71611482 -0.086668357 8
1.401613 -0.67364722 0.3590219 71
1.3660542 -0.65685022 -0.026457848 87
1.4188282 -0.68253088 0.42187506 52
2.4062386 -1.1611495 -0.71589351 8
1.3902322 -0.67116666 0.026946515 78
2.4163368 -1.1670624 -0.61951524 7
1.3884213 -0.67059124 0.080806725 71
2.3899357 -1.1548254 -0.51594758 5
1.3865964 -0.67030686 0.13474278 63
2.409622 -1.1653756 -0.42393744 6
1.4009408 -0.67784464 0.19109115 74
2.4246378 -1.1736823 -0.33075345 5
1.3868543 -0.67132765 0.24403779 79
2.702322 -1.3086817 -0.26268741 5
1.41168 -0.68395317 0.30491278 71
1.4719549 -0.71347338 -0.085726306 10
1.399253 -0.67853558 0.3590219 71
1.3602698 -0.65963155 -0.02638804 90
1.4113426 -0.68470246 0.42032215 55
2.4056449 -1.1712331 -0.71692878 8
1.3736155 -0.66877031 0.026667278 83
2.4159572 -1.1767756 -0.62041503 7
1.3878675 -0.67630857 0.080911398 69
2.4000075 -1.1700435 -0.51900047 6
1.3735036 -0.66990244 0.1336969 66
2.4057441 -1.1733598 -0.42393744 7
1.3915491 -0.67900455 0.1901162 74
2.4225163 -1.182587 -0.33099717 5
1.3827276 -0.67529774 0.24372493 74
2.6869967 -1.3128587 -0.26164153 6
1.3952924 -0.68173575 0.30185983 71
1.4731694 -0.72010481 -0.085935652 10
1.3987459 -0.68402803 0.3594718 70
1.3615514 -0.6661334 -0.026457848 87
1.4002682 -0.68537831 0.41773397 52
2.4084775 -1.18303 -0.71899933 8
1.3675656 -0.67203653 0.026597466 83
2.4081304 -1.1839031 -0.61951524 8
1.3907559 -0.68403524 0.08122541 71
2.4029558 -1.1818799 -0.52052695 5
1.381883 -0.67997074 0.13474278 66
2.3978829 -1.1804246 -0.42331171 6
1.3854895 -0.68234611 0.18962872 74
2.4288497 -1.1967223 -0.3324596 5
1.3837868 -0.68210793 0.24435066 76
2.6663141 -1.3143021 -0.26007274 5
1.3857412 -0.68337196 0.30033338 71
1.4490266 -0.71489531 -0.084679581 11
1.3997244 -0.69087517 0.36037162 68
1.362687 -0.67289001 -0.026527658 95
1.3994789 -0.69136161 0.4182516 53
2.4181812 -1.198292 -0.72314042 8
1.372378 -0.68035889 0.026737086 83
2.4004915 -1.19057 -0.61861545 7
1.377625 -0.68355936 0.080597378 74
2.4058499 -1.193751 -0.52205342 5
1.3795011 -0.68479025 0.13474278 66
1.5215248 -0.75562251 -0.26906732 1
1.3724326 -0.68187869 0.18816628 74
1.4771924 -0.734249 -0.20254686 1
1.3831662 -0.68781364 0.24466354 77
1.4325422 -0.71236712 -0.13997212 1
1.3833474 -0.68820488 0.30033338 71
1.423278 -0.70837998 -0.083318852 12
1.388582 -0.69141382 0.35812211 71
1.3603297 -0.67764258 -0.026527658 95
1.4022442 -0.69882756 0.41980451 52
2.4087999 -1.2041343 -0.72158754 7
1.3735716 -0.68693411 0.026806895 83
1.368206 -0.68454927 0.080178693 74
1.4044845 -0.70300686 -0.30529439 1
1.3806652 -0.69138557 0.13509139 68
1.4235066 -0.71314973 -0.25217238 1
1.370044 -0.68666518 0.18816628 74
1.421385 -0.7127077 -0.19523472 2
1.3702825 -0.68708402 0.24278632 79
1.4157999 -0.7102164 -0.13857763 2
1.3844461 -0.69479072 0.30109662 69
1.4225816 -0.71424001 -0.083423525 12
1.3809358 -0.6936326 0.35677239 66
1.3437797 -0.67496938 -0.02624842 87
1.399919 -0.70347375 0.41980451 52
1.447234 -0.72978282 -0.43429837 1
1.3748572 -0.69328606 0.026876707 78
1.409301 -0.71096319 -0.36442074 1
1.3729403 -0.69292063 0.080597378 71
1.3774866 -0.69551677 -0.29995176 4
1.37113 -0.69260752 0.13439415 64
1.4140811 -0.71430373 -0.25092092 2
1.3730745 -0.69389063 0.18889751 72
1.4083844 -0.71204329 -0.19377227 4
1.3661132 -0.69097149 0.24247345 74
1.4026456 -0.70975679 -0.13753176 4
1.3856378 -0.70115066 0.30185983 69
1.4166412 -0.71714926 -0.083214179 12
1.3803666 -0.69908857 0.35722229 71
1.3414154 -0.67965591 -0.02624842 87
1.3888392 -0.70398891 0.41721633 53
1.4138089 -0.71881825 -0.42498088 2
1.3546051 -0.68901497 0.026527658 83
1.4154947 -0.72029728 -0.36667025 4
1.3722931 -0.69861495 0.080702052 69
1.3839206 -0.70453429 -0.30185983 5
1.3581734 -0.69172531 0.13334829 64
1.4010186 -0.71385467 -0.2490437 5
1.3724126 -0.69958085 0.18914123 74
1.4165009 -0.72236609 -0.19523472 9
1.3601738 -0.69394046 0.24184772 71
1.4056085 -0.71712059 -0.1380547 11
1.3691928 -0.698843 0.29880691 69
1.4105717 -0.72027338 -0.083004832 19
1.3883303 -0.70922184 0.35992169 73
1.3425959 -0.68615425 -0.026318228 90
1.3829333 -0.70707363 0.41618103 53
1.428481 -0.73256445 -0.43015727 8
1.3521917 -0.69373924 0.026527658 86
1.4025694 -0.71989471 -0.36397082 11
1.3680694 -0.7024886 0.080597378 74
1.4076499 -0.72281277 -0.30758414 16
1.3628393 -0.70010352 0.13404553 63
1.4090599 -0.72415841 -0.25092092 24
1.3629006 -0.70073646 0.18816628 74
1.4069097 -0.7236743 -0.19425975 16
1.364769 -0.70229954 0.24309918 72
1.4066398 -0.72384596 -0.13840331 32
1.363254 -0.70182091 0.29804367 71
1.4044977 -0.72336382 -0.082795486 39
1.3806493 -0.71138602 0.35857201 70
1.3401927 -0.69083655 -0.026318228 90
1.3804566 -0.71189666 0.41618103 53
1.4156199 -0.73222101 -0.42705145 22
1.3533138 -0.70029306 0.026597466 83
1.4069704 -0.72836977 -0.36577043 29
1.3549678 -0.70174861 0.079969354 71
1.4068614 -0.72862476 -0.30796573 34
1.3568491 -0.70302331 0.1336969 66
1.3977548 -0.72452718 -0.24935657 39
1.3516351 -0.70092034 0.18694758 72
1.4043751 -0.72858089 -0.19425975 37
1.3658159 -0.70887923 0.24372493 74
1.3952627 -0.72416264 -0.13753176 49
1.3642807 -0.70838469 0.29880691 69
1.3860126 -0.71997589 -0.081853449 55
1.3643242 -0.70901203 0.35497278 68
1.3377731 -0.69551051 -0.026318228 90
1.3831049 -0.71938533 0.41773397 52
1.4044914 -0.73269045 -0.42446327 35
1.3508612 -0.70501268 0.026597466 86
1.3940547 -0.72786504 -0.36307102 50
1.3454288 -0.70277524 0.079550661 74
1.3973489 -0.72989535 -0.30643925 55
1.3579185 -0.70960087 0.13404553 66
1.3969676 -0.730317 -0.24966943 59
1.3491801 -0.70563418 0.18694758 72
1.3895111 -0.72703654 -0.19255358 55
1.3563327 -0.70997804 0.24247345 76
1.3944916 -0.72995245 -0.13770607 62
1.365278 -0.71496421 0.29957014 71
1.374645 -0.72017515 -0.081330083 37
1.3583889 -0.71196085 0.35407299 68
1.3282533 -0.69646156 -0.026178611 93
1.3788747 -0.72331154 0.41721633 53
1.3848286 -0.72859359 -0.41928688 44
1.3519311 -0.71158671 0.026667278 83
1.4035754 -0.7390824 -0.36622033 58
1.3500358 -0.71119088 0.079969354 71
1.3774228 -0.72561824 -0.30262309 66
1.3519081 -0.71247876 0.1336969 68
1.3979045 -0.7370314 -0.25029516 68
1.3519763 -0.71311784 0.1876788 74
1.3887204 -0.73280877 -0.1927973 60
1.3398708 -0.70733058 0.23997049 72
1.3812361 -0.72947598 -0.1366602 63
1.3662461 -0.72155923 0.30033338 71
1.3703568 -0.72403616 -0.08122541 11
1.3593411 -0.71851945 0.35497278 70
1.3187429 -0.69735461 -0.026038991 90
1.3729261 -0.72631341 0.41618103 53
1.3838552 -0.73457009 -0.41980451 52
1.3388412 -0.71067595 0.026457848 86
1.400987 -0.74397725 -0.36622033 58
1.3510725 -0.7177732 0.080178693 74
1.3868892 -0.73711163 -0.30529439 70
1.3422509 -0.71368748 0.13299966 63
1.3917059 -0.74029469 -0.24966943 66
1.3512315 -0.71876502 0.18792254 72
1.3966684 -0.74324727 -0.19425975 57
1.3478558 -0.71757305 0.24184772 76
1.3716472 -0.73054653 -0.13596295 53
1.3531964 -0.72102267 0.29804367 71
1.350069 -0.71965891 -0.080178693 12
1.3635767 -0.7271648 0.35677239 70
1.3198296 -0.70383549 -0.0261088 90
1.3601557 -0.72564548 0.41307521 56
1.3829858 -0.74030781 -0.42032215 50
1.3344647 -0.7146343 0.026422944 88
1.389662 -0.74450582 -0.36397082 47
1.3485588 -0.72248495 0.080178693 74
1.3791168 -0.73916596 -0.30414957 48
1.3397516 -0.71836847 0.13299966 64
1.3751874 -0.73767799 -0.24716648 41
1.3363439 -0.71714199 0.18621638 74
1.3921859 -0.7474224 -0.19401602 29
1.3453426 -0.72227365 0.24184772 71
1.3796202 -0.74098635 -0.13700882 13
1.3472124 -0.72388339 0.29728043 71
1.3334751 -0.71680194 -0.079341315 12
1.3627462 -0.7328431 0.35722229 63
1.3244095 -0.71222675 -0.02624842 93
1.3644196 -0.73404998 0.41514575 53
1.3837932 -0.74696612 -0.42135742 18
1.3303279 -0.71810573 0.02638804 86
1.3940443 -0.75281388 -0.36577043 13
1.3354855 -0.72149187 0.079550661 74
1.3851638 -0.7486428 -0.30605766 12
1.3477514 -0.72872645 0.13404553 70
1.3918475 -0.75256914 -0.25060806 9
1.3304663 -0.71968055 0.18572889 76
1.3879539 -0.75109011 -0.19377227 8
1.3428133 -0.72696531 0.24184772 72
1.3980486 -0.75718391 -0.13910057 9
1.3482572 -0.73021686 0.29804367 73
1.3117741 -0.71075374 -0.078189924 12
1.3500292 -0.73178613 0.35452288 63
1.325431 -0.71875197 -0.026318228 93
1.365245 -0.74065065 0.41618103 55
1.3948841 -0.75893706 -0.42549852 8
1.3348385 -0.72656912 0.026527658 86
1.3896966 -0.75674349 -0.36532053 8
1.3312049 -0.72519374 0.079445995 78
1.3861216 -0.75511044 -0.30682087 9
1.3418285 -0.73128492 0.1336969 66
1.3961495 -0.76120538 -0.25185952 9
1.3296888 -0.72527093 0.18597263 72
1.3905513 -0.75878292 -0.19450349 9
1.3333321 -0.72786218 0.24059623 74
1.3990275 -0.7637251 -0.13944918 9
1.342254 -0.7330367 0.29728043 69
1.3075325 -0.71437079 -0.078085259 13
1.3406267 -0.7327556 0.35272327 63
1.3053687 -0.71378034 -0.025969181 90
1.3592618 -0.74355757 0.41514575 55
1.3871453 -0.76101398 -0.42394564 8
1.3340472 -0.73218632 0.026562562 88
1.3990039 -0.76815528 -0.36846986 8
1.330416 -0.73079771 0.079550661 74
1.3765944 -0.75616354 -0.30529439 9
1.328791 -0.73020703 0.13265103 66
1.395215 -0.76702589 -0.25217238 9
1.3358459 -0.7346912 0.18719132 74
1.3931118 -0.76650316 -0.19523472 9
1.3238611 -0.72870171 0.23934476 71
1.3946077 -0.76764321 -0.13927487 8
1.346566 -0.74150556 0.29880691 69
1.3032815 -0.71796685 -0.077980585 13
1.3397675 -0.73837137 0.35317317 64
1.3028692 -0.71833253 -0.025969181 87
1.3498915 -0.74456549 0.41307521 56
1.3912421 -0.76959175 -0.42601615 8
1.3262343 -0.73393369 0.026457848 86
1.396314 -0.77303398 -0.36846986 8
1.336722 -0.74004233 0.08007402 78
1.3842512 -0.76667148 -0.30758414 10
1.3227485 -0.73290974 0.13230242 68
1.3873459 -0.76901835 -0.25123379 10
1.3315372 -0.73838699 0.18694758 72
1.3973713 -0.7752133 -0.19620967 8
1.3283468 -0.73692089 0.24059623 76
1.3901776 -0.77153975 -0.13910057 9
1.330238 -0.73857743 0.29575396 71
1.2972754 -0.72057217 -0.077771239 13
1.3422921 -0.74588329 0.35452288 63
1.3039759 -0.72459179 -0.026038991 87
1.3372842 -0.74340594 0.40996939 56
1.395296 -0.77820742 -0.4280867 8
1.3168075 -0.73443151 0.026318228 86
1.3937429 -0.77766013 -0.36846986 8
1.3341305 -0.74470389 0.08007402 78
1.3884231 -0.77532744 -0.30911061 9
1.3201822 -0.73752254 0.13230242 70
1.3813391 -0.77168792 -0.25060806 9
1.3238829 -0.73989308 0.18621638 76
1.4051888 -0.78565538 -0.1976721 8
1.3326625 -0.7454105 0.24184772 72
1.387476 -0.77638775 -0.13910057 9
1.3277814 -0.74298459 0.29575396 71
1.2791939 -0.71608967 -0.076829188 13
1.3432118 -0.75223476 0.35542268 63
1.3049277 -0.73109388 -0.0261088 90
1.334681 -0.74806935 0.40996939 58
1.3994439 -0.7866165 -0.43015727 8
1.3177218 -0.74098378 0.02638804 86
1.3910199 -0.78252041 -0.36846986 8
1.3141174 -0.73956078 0.079027303 72
1.3858443 -0.77992737 -0.30911061 10
1.3246738 -0.74580622 0.13299966 68
1.3855217 -0.78038269 -0.25185952 9
1.3109154 -0.73866284 0.18475394 74
1.3955208 -0.78665644 -0.19669713 9
1.326611 -0.74811721 0.24122196 72
1.3970419 -0.78783536 -0.14032075 8
1.3251798 -0.74761486 0.29575396 69
1.2610322 -0.7117154 -0.075887144 13
1.3320931 -0.75212818 0.35317317 66
1.3058501 -0.73761141 -0.026178611 90
1.342153 -0.75842619 0.41307521 56
1.4000512 -0.7934016 -0.43119255 8
1.3203461 -0.74853772 0.026492754 88
1.3882798 -0.78737122 -0.36846986 8
1.3063164 -0.74118656 0.078713283 74
1.3814057 -0.78379124 -0.30872896 10
1.3185968 -0.74845856 0.13265103 64
1.3913778 -0.79009145 -0.25342387 9
1.3152332 -0.74715638 0.18572889 76
1.3927664 -0.79152286 -0.19669713 8
1.3136882 -0.74688542 0.23934476 71
1.3994795 -0.79566127 -0.14084367 9
1.3293883 -0.7561186 0.29728043 71
1.2533325 -0.71314973 -0.075573131 13
1.3192981 -0.7509892 0.35047376 64
1.2963166 -0.73820698 -0.026038991 85
1.341176 -0.76406288 0.41359285 60
1.3939183 -0.79636717 -0.43015727 8
1.3142529 -0.75115734 0.026422944 88
1.3956733 -0.79801625 -0.37116927 8
1.310656 -0.74970865 0.079131976 74
1.3769572 -0.78763366 -0.30834734 9
1.3125178 -0.75107771 0.13230242 64
1.3971831 -0.79985052 -0.25498822 10
1.3195075 -0.75568902 0.18670385 76
1.3899949 -0.79637975 -0.19669713 9
1.3076454 -0.74950182 0.23871902 71
1.3845935 -0.7936061 -0.13962351 9
1.3250377 -0.7597779 0.29689881 71
1.2525679 -0.71851414 -0.075677805 13
1.3268099 -0.76140958 0.35317317 64
1.2867949 -0.73874497 -0.025899371 85
1.3301246 -0.76392907 0.41100466 56
1.3844337 -0.79737127 -0.4280867 8
1.3046921 -0.75174707 0.026283324 91
1.3996326 -0.80677593 -0.37296888 8
1.3080311 -0.75427914 0.079131976 74
1.3844039 -0.79831976 -0.31063706 9
1.3029847 -0.75167227 0.13160518 66
1.385828 -0.79978579 -0.25342387 9
1.3082658 -0.75532764 0.18548515 72
1.4043962 -0.81115538 -0.19913453 8
1.3152834 -0.75999153 0.24059623 74
1.3783646 -0.79644078 -0.13927487 9
1.3155786 -0.76046836 0.29537234 71
1.2448653 -0.71988249 -0.075363785 13
1.324144 -0.76603633 0.35317317 66
1.2842084 -0.74323231 -0.025899371 87
1.3241062 -0.76663154 0.40996939 61
1.3950074 -0.80995917 -0.43222782 8
1.2951435 -0.75227916 0.026143704 91
1.3900681 -0.80774039 -0.37116927 8
1.3105702 -0.76185173 0.079445995 78
1.3850034 -0.80512077 -0.31140029 9
1.3037976 -0.75821906 0.13195379 64
1.3779056 -0.80163819 -0.25248525 9
1.3039056 -0.75889117 0.18524142 76
1.4032717 -0.81705141 -0.19937825 9
1.3126227 -0.7645781 0.24059623 71
1.3910707 -0.81027263 -0.14084367 9
1.3010421 -0.75813693 0.29270101 65
1.2268155 -0.71517074 -0.074421734 13
1.3248287 -0.77261734 0.35407299 64
1.2850608 -0.74972582 -0.025969181 93
1.3214221 -0.77124888 0.40996939 61
1.3888371 -0.81287211 -0.43119255 8
1.295961 -0.7588163 0.026213516 93
1.383877 -0.81061763 -0.37026945 8
1.299287 -0.76137292 0.078922629 71
1.3889601 -0.81392074 -0.31292677 10
1.3114558 -0.76881135 0.13299966 70
1.3887308 -0.81443757 -0.25498822 9
1.2944 -0.75941998 0.18426646 74
1.4038351 -0.82395452 -0.19986574 9
1.3065388 -0.76715487 0.23997049 74
1.3985425 -0.82117629 -0.14188954 9
1.3102375 -0.76963425 0.29537234 69
1.21398 -0.71337748 -0.073793709 13
1.312044 -0.77131146 0.35137355 66
1.2841597 -0.75522077 -0.026004087 93
1.3187219 -0.77585673 0.40996939 58
1.4026297 -0.82753146 -0.43636894 8
1.2933043 -0.76333541 0.026213516 91
1.3843952 -0.81742495 -0.37116927 8
1.288023 -0.76082474 0.078399271 78
1.379349 -0.81477022 -0.31140029 9
1.3053336 -0.77135724 0.13265103 70
1.3926811 -0.82330126 -0.25623968 9
1.2951585 -0.76595449 0.18475394 74
1.3992419 -0.82783902 -0.19962201 8
1.3004531 -0.76969856 0.23934476 71
1.3990967 -0.82808268 -0.14223817 9
1.307543 -0.77420318 0.29537234 69
1.2132007 -0.71862859 -0.073898375 13
1.3059907 -0.77389973 0.35047376 64
1.274635 -0.7556197 -0.025864467 90
1.3226522 -0.78439707 0.41203994 61
1.3897699 -0.82649785 -0.43326309 8
1.2975061 -0.77193511 0.026353134 88
1.3915809 -0.82823253 -0.37386867 8
1.2922238 -0.76940322 0.078817956 78
1.3781834 -0.82058442 -0.31178191 10
1.2923628 -0.76979142 0.13160518 70
1.3881018 -0.82714635 -0.25592682 9
1.2958872 -0.77250385 0.18524142 74
1.3963437 -0.83271825 -0.19962201 8
1.28758 -0.768161 0.23746756 72
1.3927755 -0.83091986 -0.14188954 9
1.301461 -0.77675027 0.2946091 71
1.2123997 -0.72388297 -0.074003048 13
1.3066273 -0.78045237 0.35137355 68
1.2685564 -0.75801295 -0.025794657 90
1.3165897 -0.78702658 0.41100466 61
1.3868765 -0.83134395 -0.43326309 8
1.2845137 -0.77028888 0.026143704 91
1.3953657 -0.83709502 -0.37566829 8
1.2930907 -0.77573913 0.079027303 74
1.3786772 -0.82741076 -0.31254515 10
1.2828351 -0.77019584 0.13090792 66
1.3835127 -0.83096969 -0.25561395 9
1.2965858 -0.7790674 0.18572889 74
1.3986793 -0.84041131 -0.20035322 9
1.2917978 -0.7764973 0.23871902 72
1.3864517 -0.83372301 -0.14154093 9
1.295377 -0.77926445 0.29384586 69
1.2047318 -0.72502106 -0.073689036 13
1.304032 -0.7847811 0.35137355 68
1.2694621 -0.76427835 -0.025864467 93
1.3007336 -0.78341448 0.40686354 61
1.3907267 -0.83993334 -0.43533364 8
1.2819523 -0.77454424 0.026143704 91
1.3925822 -0.8417176 -0.37566829 8
1.2956389 -0.78312224 0.079341315 83
1.387686 -0.83908898 -0.31521648 9
1.287093 -0.77857035 0.13160518 68
1.3841295 -0.83759838 -0.25623968 9
1.2889009 -0.78027862 0.18499769 78
1.4111681 -0.8542971 -0.20254686 8
1.2892157 -0.7807768 0.23871902 72
1.3939036 -0.8445105 -0.14258678 9
1.2894279 -0.78152061 0.29308262 67
1.190366 -0.72176331 -0.072956331 13
1.3030889 -0.79011142 0.35182348 71
1.2703402 -0.77055806 -0.025934275 90
1.3014317 -0.78972811 0.40789884 63
1.3912344 -0.84654909 -0.43636894 8
1.2793769 -0.77879107 0.026143704 91
1.3831257 -0.84227663 -0.37386867 8
1.2775464 -0.77828825 0.078399271 74
1.393279 -0.84879309 -0.31712458 10
1.2913095 -0.78698176 0.13230242 68
1.3813443 -0.84218377 -0.25623968 10
1.2744431 -0.77731287 0.18329151 76
1.3912319 -0.84887826 -0.20010948 8
1.2898545 -0.78733057 0.23934476 72
1.3978978 -0.85328048 -0.14328404 9
1.283478 -0.78374588 0.29231939 73
1.179444 -0.72050089 -0.072432972 13
1.2953343 -0.79160672 0.35047376 68
1.271055 -0.77707374 -0.026004087 95
1.3085554 -0.80031377 0.41100466 61
1.3948582 -0.85544002 -0.43843949 8
1.2800596 -0.78534359 0.026213516 88
1.3901422 -0.85321581 -0.37656808 8
1.2731199 -0.78169787 0.078294598 74
1.3819424 -0.84851509 -0.31521648 11
1.2851591 -0.78939885 0.13195379 66
1.3851281 -0.85113704 -0.25749114 9
1.2784864 -0.78591502 0.18426646 76
1.3848784 -0.85164976 -0.19962201 9
1.2770036 -0.78561789 0.23746756 74
1.4016988 -0.86233085 -0.14398128 9
1.2907662 -0.79439527 0.2946091 71
1.1786225 -0.72566062 -0.072537638 13
1.2892448 -0.79407942 0.34957394 70
1.25131 -0.77101576 -0.025655037 93
1.2991757 -0.80082184 0.40893409 63
1.3852905 -0.85624093 -0.43636894 8
1.2739087 -0.78770375 0.026143704 93
1.3937848 -0.86216372 -0.37836769 8
1.2805737 -0.7924431 0.078922629 83
1.38565 -0.85746628 -0.31674296 11
1.2756195 -0.78968531 0.13125655 70
1.3922251 -0.86220735 -0.25936839 9
1.2807978 -0.79350942 0.18499769 78
1.3937082 -0.86379892 -0.20132817 9
1.2708958 -0.78798872 0.23684181 74
1.3919069 -0.86301875 -0.14328404 9
1.2846488 -0.79682642 0.29384586 73
1.1794765 -0.73187655 -0.072746992 13
1.286465 -0.79857498 0.34957394 68
1.248611 -0.77537888 -0.025655037 97
1.2914495 -0.80229372 0.40738121 65
1.390492 -0.86617863 -0.43895712 7
1.2643631 -0.78791535 0.026004087 100
1.3940741 -0.86908567 -0.37926751 8
1.2676316 -0.7905668 0.078294598 79
1.3826485 -0.86229777 -0.31674296 10
1.2694746 -0.79202396 0.13090792 70
1.3841798 -0.86392409 -0.25842977 10
1.2746524 -0.79587269 0.1845102 78
1.4007863 -0.87496853 -0.2027906 9
1.271488 -0.79451382 0.23746756 76
1.3855066 -0.86576062 -0.14293543 9
1.2752004 -0.79714316 0.29231939 71
1.1853817 -0.74128413 -0.073270351 13
1.2836696 -0.80306065 0.34957394 68
1.2492871 -0.78185445 -0.025724847 100
1.2837288 -0.80372137 0.40582827 63
1.3956406 -0.87616271 -0.44154531 8
1.2497507 -0.78487945 0.025759753 100
1.3877318 -0.87187308 -0.37836769 8
1.2648643 -0.79498678 0.078294598 81
1.3896031 -0.8733871 -0.31903264 9
1.2633286 -0.79432935 0.1305593 72
1.3794836 -0.86769879 -0.2581169 9
1.2685063 -0.79820275 0.18402272 92
1.4145232 -0.89042801 -0.205228 9
1.2687068 -0.79894739 0.23746756 76
1.3925917 -0.87696189 -0.14398128 9
1.2657657 -0.79740375 0.29079291 71
1.1709589 -0.73796308 -0.072537638 13
1.2874526 -0.81169379 0.35137355 70
1.249933 -0.78834403 -0.025794657 100
1.285817 -0.81129009 0.40738121 65
1.3925737 -0.88102913 -0.44154531 8
1.2605212 -0.79779238 0.026038991 100
1.381387 -0.87462699 -0.3774679 8
1.2553325 -0.79512239 0.077875912 77
1.383229 -0.87613153 -0.31826943 10
1.2639142 -0.80086726 0.13090792 74
1.3814516 -0.87568146 -0.25905553 9
1.2472714 -0.79093194 0.18134159 80
1.3946438 -0.88472635 -0.2027906 9
1.269246 -0.80548787 0.23809329 74
1.3945689 -0.8850202 -0.14450422 8
1.2662895 -0.80392182 0.29155618 71
1.1650039 -0.73990452 -0.072328299 13
1.2763872 -0.81095773 0.34912404 73
1.240423 -0.7884115 -0.025655037 100
1.2846074 -0.81681001 0.40789884 63
1.3927478 -0.88796175 -0.44258058 8
1.2577287 -0.80218762 0.026038991 100
1.3881824 -0.88573283 -0.38016731 8
1.2491822 -0.79735029 0.077666566 79
1.3768524 -0.87884188 -0.31750616 11
1.2644695 -0.80741858 0.13125655 74
1.3850453 -0.88475192 -0.26030698 9
1.2578847 -0.80383229 0.18329151 86
1.3948921 -0.89172775 -0.20327808 9
1.2597698 -0.80565637 0.23684181 74
1.3897926 -0.88880932 -0.14432991 9
1.2684368 -0.81151116 0.29270101 75
1.1640962 -0.74504328 -0.072432972 13
1.2653427 -0.81015438 0.34687454 68
1.2342956 -0.79057962 -0.025585229 100
1.2817484 -0.82128912 0.40789884 67
1.3896397 -0.89281785 -0.44258058 8
1.2549208 -0.80657309 0.026038991 100
1.3850821 -0.89057308 -0.38016731 8
1.249751 -0.80386674 0.077875912 81
1.3820323 -0.88895297 -0.31941426 9
1.2515905 -0.80535889 0.13021068 74
1.3919145 -0.89599663 -0.2621842 10
1.2567402 -0.80929297 0.18353525 80
1.4017836 -0.90304166 -0.20474051 9
1.2503082 -0.80576855 0.23559032 74
1.3917058 -0.89689302 -0.14485285 8
1.2705466 -0.81912518 0.29384586 73
1.1682023 -0.75343221 -0.072851658 13
1.2690572 -0.81879222 0.34867415 70
1.2315284 -0.79488331 -0.025585229 95
1.2756277 -0.8236624 0.40686354 67
1.3865147 -0.89766324 -0.44258058 8
1.245384 -0.80660039 0.025899371 100
1.388507 -0.89964098 -0.38196692 9
1.2504308 -0.8101787 0.078085259 85
1.3805684 -0.89483964 -0.31979591 9
1.2487715 -0.80972278 0.13021068 74
1.3838067 -0.89762467 -0.26124558 9
1.2605684 -0.81799716 0.1845102 92
1.403618 -0.91117185 -0.20547174 9
1.2525998 -0.81313699 0.23652895 77
1.3785406 -0.89523482 -0.14380698 9
1.2578017 -0.81713802 0.29155618 71
1.1739385 -0.76294732 -0.073375016 13
1.2629237 -0.82109272 0.34777436 70
1.2288857 -0.79896283 -0.025585229 100
1.2664117 -0.82367498 0.40479302 67
1.3898448 -0.90671986 -0.44465113 8
1.2393527 -0.80854046 0.025829561 100
1.385516 -0.90424055 -0.38196692 8
1.2509398 -0.81672239 0.078294598 83
1.3807237 -0.90180039 -0.32055911 10
1.2459375 -0.81407696 0.13021068 76
1.3808224 -0.90220881 -0.26124558 9
1.2379094 -0.80913979 0.18158534 82
1.4005886 -0.91582155 -0.20547174 8
1.251407 -0.81858587 0.23684181 76
1.3854103 -0.90658706 -0.14485285 8
1.2501566 -0.81807947 0.29041129 75
1.1663889 -0.76355422 -0.073060997 13
1.2683452 -0.83061427 0.35002387 71
1.2277621 -0.80434346 -0.025620133 100
1.2667603 -0.8302083 0.40582827 67
1.3868303 -0.91132373 -0.44465113 8
1.2432069 -0.8172555 0.025969181 100
1.372582 -0.9026469 -0.37926751 8
1.2447443 -0.81888866 0.078085259 83
1.3842863 -0.91069019 -0.32208559 10
1.2465596 -0.82039464 0.1305593 74
1.3842642 -0.91136819 -0.26249707 9
1.2383931 -0.81563973 0.18207282 80
1.3940681 -0.91852051 -0.20498425 8
1.2452434 -0.82077485 0.23621608 76
1.3890506 -0.91556221 -0.14555009 9
1.2489322 -0.82351905 0.29079291 71
1.1620493 -0.76652139 -0.072956331 13
1.2524258 -0.82645011 0.34642464 73
1.2416354 -0.81964076 -0.025969181 100
1.2686908 -0.83781886 0.40738121 65
1.3900839 -0.9204253 -0.44672167 8
1.2403464 -0.82159019 0.025969181 100
1.3759205 -0.9117384 -0.38106713 8
1.2318897 -0.81660748 0.077457219 81
1.3729169 -0.91009301 -0.32017753 10
1.2436883 -0.82474101 0.1305593 79
1.3843668 -0.91837859 -0.2631228 9
1.2487705 -0.82873899 0.18402272 92
1.3875458 -0.92118508 -0.20449677 9
1.2390796 -0.82293081 0.23559032 74
1.392485 -0.92481446 -0.14624733 8
1.2493206 -0.83004659 0.29155618 69
1.1643567 -0.77388972 -0.073270351 13
1.2495334 -0.83081675 0.34642464 73
1.2204517 -0.81178761 -0.025585229 97
1.2657585 -0.8422423 0.40738121 65
1.3707922 -0.91455048 -0.44154531 8
1.2407976 -0.82813501 0.026038991 100
1.3727297 -0.91653562 -0.38106713 9
1.2356752 -0.82533979 0.077875912 81
1.361569 -0.90942758 -0.31826943 10
1.2374886 -0.82686353 0.13021068 74
1.3844372 -0.92540085 -0.26374856 9
1.2392694 -0.82867914 0.18304777 82
1.3942215 -0.93264532 -0.2059592 9
1.2329161 -0.82505387 0.23496459 76
1.3859364 -0.9274534 -0.1458987 8
1.2496784 -0.83658677 0.29231939 71
1.1749241 -0.78684002 -0.074107721 13
1.2498636 -0.83734268 0.34732443 73
1.2109661 -0.81158966 -0.025445608 97
1.2547879 -0.84127653 0.40479302 67
1.3515588 -0.90855229 -0.43636894 9
1.2279429 -0.82576567 0.025829561 100
1.3614374 -0.91588306 -0.37881762 9
1.2294729 -0.82741791 0.077666566 83
1.3518711 -0.90979028 -0.31674296 11
1.2279838 -0.82672733 0.12951343 76
1.3779216 -0.92802083 -0.2631228 10
1.2446007 -0.8385458 0.18426646 86
1.3942497 -0.93972534 -0.20644669 9
1.2349422 -0.83266544 0.23590319 77
1.3810388 -0.93117166 -0.1457244 9
1.236985 -0.83435684 0.2900297 73
1.1771373 -0.79428798 -0.074421734 13
1.2453179 -0.84061021 0.34687454 70
1.2081257 -0.81581181 -0.025445608 100
1.2454404 -0.84132582 0.40272245 67
1.3035932 -0.88293082 -0.42187506 11
1.225053 -0.83004701 0.025829561 100
1.2888687 -0.87361431 -0.3594718 11
1.2331895 -0.8361882 0.078085259 85
1.2983145 -0.88034749 -0.30491278 12
1.2283884 -0.83324569 0.12986206 76
1.3795776 -0.93615264 -0.26406142 10
1.2186722 -0.82727623 0.18085413 78
1.4073832 -0.95573866 -0.20888408 9
1.2352961 -0.8391912 0.23652895 79
1.3810761 -0.93822598 -0.14607303 9
1.2308172 -0.83646256 0.28926644 73
1.1710541 -0.79614639 -0.074212395 13
1.250433 -0.85043156 0.34912404 75
1.211884 -0.82452339 -0.025585229 100
1.2440931 -0.84675503 0.40324008 71
1.2765676 -0.87114173 -0.41411048 12
1.2221481 -0.83431822 0.025829561 100
1.2632815 -0.8627218 -0.35317317 13
1.2203681 -0.83372766 0.077457219 83
1.2676755 -0.86604697 -0.29842529 19
1.2320518 -0.84202516 0.1305593 74
1.3844547 -0.94653702 -0.26562575 11
1.222331 -0.83600783 0.18182908 86
1.3942084 -0.95391983 -0.20742163 8
1.2323593 -0.84349805 0.23652895 81
1.3827251 -0.94641715 -0.14659595 8
1.2246504 -0.83853549 0.28850323 71
1.1682678 -0.80022931 -0.074212395 13
1.2345964 -0.84597886 0.34552482 75
1.2089984 -0.82874864 -0.025585229 100
1.2490959 -0.85655528 0.40582827 69
1.2687433 -0.87230903 -0.41255757 16
1.2192284 -0.83857924 0.025829561 100
1.258657 -0.86602151 -0.35272327 17
1.2110152 -0.83324152 0.077038541 83
1.2533244 -0.86267483 -0.29575396 19
1.2291051 -0.84632075 0.1305593 74
1.3876495 -0.95584613 -0.26687723 10
1.212867 -0.83576399 0.18085413 77
1.3876015 -0.95652729 -0.20693417 8
1.2263026 -0.84533775 0.23590319 79
1.3892543 -0.95802456 -0.14764182 8
1.2314119 -0.8494941 0.29079291 73
1.1687551 -0.80657119 -0.074421734 12
1.2316359 -0.85028332 0.34552482 73
1.2029523 -0.83048105 -0.025515417 93
1.2494277 -0.86288834 0.40686354 67
1.2450457 -0.86243206 -0.40582827 19
1.2230163 -0.84717244 0.025969181 100
1.2557782 -0.87019062 -0.35272327 18
1.2113822 -0.83973938 0.07724788 77
1.2406256 -0.86033189 -0.29346424 18
1.2195954 -0.84606349 0.12986206 76
1.3925874 -0.96607232 -0.26844159 11
1.2247666 -0.84996742 0.18304777 78
1.3909445 -0.96565187 -0.20790912 8
1.2168545 -0.84510607 0.23465173 86
1.3744478 -0.95491058 -0.14642164 10
1.2350373 -0.85805374 0.29231939 73
1.1693541 -0.81272221 -0.07463108 12
1.2288095 -0.85436291 0.34552482 73
1.1934795 -0.83010787 -0.0253758 93
1.2321362 -0.85731405 0.40220481 71
1.2326725 -0.8599242 -0.40272245 18
1.2085727 -0.84342557 0.025724847 90
1.2511351 -0.87345332 -0.35227337 19
1.2117183 -0.84624994 0.077457219 81
1.229718 -0.85882068 -0.29155618 18
1.2102499 -0.84553879 0.12916481 74
1.3811111 -0.96526939 -0.26687723 10
1.2169116 -0.85082513 0.18231656 76
1.3973254 -0.97732776 -0.20937155 8
1.2171341 -0.85161346 0.23527746 77
1.3743709 -0.96198732 -0.14677027 9
1.2175592 -0.85222733 0.28888482 75
1.1730542 -0.82138139 -0.075049765 12
1.229012 -0.86088318 0.34642464 75
1.1971252 -0.83885902 -0.025515417 87
1.2228087 -0.85717434 0.40013427 71
1.2310927 -0.86554748 -0.40324008 19
1.2007136 -0.84418881 0.025620133 53
1.2321389 -0.86660439 -0.34777436 19
1.2136573 -0.85392249 0.077771239 64
1.2281675 -0.86445206 -0.29193777 13
1.2120301 -0.85340995 0.12968774 54
1.3775641 -0.97032493 -0.26687723 11
1.1993279 -0.84477943 0.1801229 47
1.4036416 -0.98905998 -0.21083398 9
1.2173831 -0.85813302 0.23590319 79
1.3807741 -0.9736681 -0.14781614 9
1.212823 -0.85555261 0.28850323 73
1.1569811 -0.81646276 -0.074212395 12
1.2290324 -0.86762965 0.34732443 73
1.2039917 -0.84995216 -0.025724847 38
1.2276993 -0.86700958 0.40272245 67
1.2217581 -0.86537302 -0.40116954 19
1.1878216 -0.84164727 0.025410704 13
1.2162355 -0.86209917 -0.34417513 20
1.2203379 -0.86532706 -0.29079291 10
1.3838344 -0.98198664 -0.26875445 10
1.1978422 -0.85031855 0.18036664 9
1.3935331 -0.98960048 -0.20985903 8
1.2142297 -0.86258918 0.23590319 79
1.3869406 -0.98564714 -0.148862 9
1.2130299 -0.8620553 0.28926644 71
1.1508684 -0.81818187 -0.074003048 12
1.2196441 -0.86739677 0.34552482 75
1.1943506 -0.84972245 -0.025585229 13
1.2260871 -0.87262362 0.40324008 71
1.2170056 -0.8687228 -0.4006519 19
1.2125455 -0.86553907 0.026004087 12
1.210047 -0.86407441 -0.34327531 19
1.2058907 -0.86142427 0.077666566 8
1.2043796 -0.86066234 -0.28773996 5
1.2172381 -0.87017196 0.13090792 8
1.3898667 -0.99394655 -0.27063167 11
1.2029403 -0.86026835 0.18158534 7
1.3852268 -0.99099374 -0.20912781 9
1.2047858 -0.86222398 0.23465173 86
1.3818715 -0.98932272 -0.14868769 9
1.221035 -0.87449765 0.29193777 77
1.151109 -0.82472104 -0.074212395 12
1.2069532 -0.86504978 0.34282541 75
1.184876 -0.84922653 -0.025445608 13
1.2324537 -0.88365221 0.4063459 71
1.1954445 -0.85901403 -0.39444023 18
1.2080448 -0.86838788 0.025969181 11
1.2040107 -0.86580688 -0.34237552 20
1.191678 -0.85725403 0.076933861 11
1.1905137 -0.8564164 -0.28506866 3
1.1918577 -0.85769886 0.12846756 8
1.3947531 -1.0040785 -0.27219599 10
1.2081352 -0.87005305 0.18280403 8
1.389986 -1.0013837 -0.21034651 9
1.1955098 -0.8615945 0.23340026 88
1.3739074 -0.9901644 -0.14816476 9
1.2150966 -0.87603289 0.29117453 75
1.1582319 -0.83534306 -0.074840426 12
1.210551 -0.87339813 0.34462503 71
1.1820533 -0.85315102 -0.025445608 13
1.2154202 -0.87755638 0.40168718 69
1.1846144 -0.85751778 -0.39185205 17
1.1952883 -0.86556238 0.025759753 11
1.199403 -0.8688612 -0.34192562 17
1.2016164 -0.87078452 0.077771239 11
1.2161318 -0.88130355 -0.29193777 1
1.1856303 -0.85951525 0.12811893 10
1.3800458 -1.0008231 -0.27000591 10
1.2034839 -0.87309921 0.18256028 9
1.3961216 -1.0132252 -0.21180893 8
1.1988891 -0.8704046 0.23465173 91
1.3720551 -0.99612468 -0.14833906 9
1.2040887 -0.87450057 0.28926644 73
1.1585405 -0.84172887 -0.075049765 12
1.2106476 -0.87990969 0.34552482 75
1.179068 -0.85727197 -0.025445608 12
1.2061003 -0.87724835 0.3996166 69
1.1769311 -0.85823292 -0.39029911 18
1.1938752 -0.87090808 0.025794657 11
1.1853436 -0.86500138 -0.33877629 19
1.1953433 -0.87261838 0.0775619 12
1.1749917 -0.85776144 -0.28277895 1
1.1890589 -0.86834884 0.12881619 11
1.3781389 -1.0067995 -0.27031878 11
1.1940181 -0.87260967 0.18158534 9
1.3973838 -1.0216072 -0.21254015 9
1.1990323 -0.87691641 0.23527746 81
1.3782188 -1.007965 -0.14938495 9
1.1946909 -0.87406141 0.28773996 73
1.1427016 -0.83633113 -0.074212395 12
1.2107135 -0.88643277 0.34642464 71
1.1792948 -0.86374569 -0.025515417 12
1.2077057 -0.88487846 0.40116954 71
1.1739281 -0.86233598 -0.39029911 18
1.1940509 -0.87743837 0.025864467 11
1.1728961 -0.86220837 -0.33607689 20
1.1858538 -0.87205255 0.077143207 16
1.1972966 -0.8804673 -0.28888482 1
1.1940449 -0.87839735 0.12968774 12
1.3777982 -1.0139456 -0.27094454 10
1.1829717 -0.87088788 0.18036664 11
1.3858172 -1.0205929 -0.21132146 9
1.1927832 -0.87875324 0.23465173 93
1.3795041 -1.0163151 -0.14990787 9
1.1995348 -0.88405007 0.28964809 77
1.1365602 -0.83794427 -0.074003048 12
1.1982019 -0.88371354 0.34372523 75
1.1762726 -0.86785692 -0.025515417 12
1.210827 -0.89367759 0.40324008 71
1.1615933 -0.85953391 -0.38719329 20
1.192588 -0.88279068 0.025899371 11
1.1620488 -0.86049885 -0.33382738 20
1.1861657 -0.87835741 0.077352546 45
1.1689748 -0.86594337 -0.28277895 1
1.2021769 -0.89086372 0.13090792 46
1.3837718 -1.0258071 -0.27282172 10
1.1958697 -0.88683641 0.18280403 21
1.3870292 -1.0289724 -0.21205269 9
1.1898627 -0.88270378 0.23465173 86
1.3855479 -1.0282484 -0.15095374 9
1.1964415 -0.88823187 0.28964809 77
1.1368351 -0.84428823 -0.074212395 12
1.1919813 -0.88556635 0.34282541 75
1.1669676 -0.86698282 -0.0253758 12
1.2078568 -0.89768791 0.40324008 71
1.1461946 -0.85434711 -0.3830522 19
1.1880506 -0.88554567 0.025864467 11
1.1529399 -0.85968798 -0.33202779 21
1.1862943 -0.88488084 0.0775619 100
1.1659451 -0.87001866 -0.28277895 1
1.178304 -0.87956095 0.12864187 83
1.3882774 -1.0362984 -0.27438608 9
1.1929221 -0.89079726 0.18280403 30
1.3851997 -1.0347543 -0.21229641 8
1.1772799 -0.87975687 0.23277451 91
1.375567 -1.0283068 -0.1502565 9
1.1887722 -0.88866812 0.28850323 73
1.137228 -0.85044575 -0.074421734 12
1.1921589 -0.8918488 0.34372523 73
1.1591312 -0.86745638 -0.025271084 12
1.192344 -0.89263654 0.39909899 71
1.1402651 -0.85582411 -0.38201693 20
1.1769568 -0.88368404 0.025689943 11
1.1468157 -0.86136657 -0.33112797 20
1.178408 -0.8854171 0.07724788 85
1.1630535 -0.87388027 -0.28277895 1
1.1737881 -0.8822664 0.12846756 81
1.3720208 -1.0316409 -0.27188313 9
1.1850462 -0.89137602 0.18207282 29
1.3910965 -1.0467445 -0.21375884 9
1.1773584 -0.88623697 0.23340026 91
1.3719691 -1.0331023 -0.1502565 10
1.1856629 -0.89281231 0.28850323 73
1.1406337 -0.85921705 -0.074840426 12
1.1937076 -0.89952308 0.34507492 82
1.1529025 -0.86908984 -0.025201276 13
1.1907632 -0.89795631 0.3996166 73
1.134039 -0.85766703 -0.38098165 20
1.173865 -0.88778704 0.025689943 11
1.1344775 -0.85830986 -0.32842857 19
1.1784953 -0.89193577 0.077457219 81
1.1598427 -0.87813723 -0.28277895 1
1.1705464 -0.88656265 0.12846756 81
1.3713795 -1.0390486 -0.27250886 10
1.1740164 -0.88951308 0.18085413 33
1.3921803 -1.0551913 -0.21449007 9
1.1837021 -0.89750224 0.23527746 83
1.3683544 -1.0378851 -0.1502565 9
1.1729985 -0.8900317 0.28621352 79
1.134295 -0.86097682 -0.07463108 12
1.1981627 -0.90978462 0.34732443 87
1.153047 -0.87552744 -0.025271084 12
1.1876216 -0.9021073 0.3996166 71
1.1202812 -0.8534255 -0.37735817 19
1.1753745 -0.89571959 0.025794657 13
1.1204758 -0.85419202 -0.32527927 20
1.1690212 -0.8912006 0.077038541 81
1.1567703 -0.88218051 -0.28277895 1
1.1737809 -0.89547712 0.12916481 81
1.3787363 -1.0522182 -0.27469894 9
1.1644368 -0.88899183 0.17987917 31
1.3851482 -1.0578771 -0.21400258 9
1.1774222 -0.89923084 0.23465173 91
1.3821386 -1.0559605 -0.15217392 8
1.1761239 -0.89888936 0.28773996 73
1.1249362 -0.86007863 -0.074212395 12
1.1856923 -0.90685815 0.34462503 85
1.159514 -0.88683611 -0.025480513 12
1.1844654 -0.90624744 0.3996166 71
1.1203605 -0.85968286 -0.37839344 12
1.1723977 -0.89961243 0.025794657 17
1.1129994 -0.85434318 -0.32392955 20
1.1595668 -0.89041024 0.076619849 85
1.153684 -0.88621289 -0.28277895 1
1.1738075 -0.90199685 0.12951343 79
1.3846374 -1.0640063 -0.27657616 9
1.1693516 -0.89889735 0.18109787 29
1.3832062 -1.0636747 -0.21424633 8
1.1680133 -0.89851749 0.23340026 88
1.3879181 -1.0680691 -0.1532198 8
1.1809162 -0.90877128 0.28964809 75
1.1189126 -0.86136764 -0.074003048 12
1.1703267 -0.90127289 0.3410258 77
1.1469066 -0.88355589 -0.025271084 12
1.1843551 -0.91273493 0.4006519 73
1.1022162 -0.85158229 -0.37321708 10
1.1771613 -0.90981364 0.025969181 20
1.106927 -0.85583913 -0.32302976 20
1.1580316 -0.89567423 0.076724522 92
1.1645068 -0.90100747 0.12881619 76
1.3809149 -1.0688331 -0.27657616 9
1.1662067 -0.90297377 0.18109787 29
1.3920398 -1.078221 -0.21619622 8
1.1586238 -0.89774954 0.23214878 91
1.3686192 -1.0604626 -0.15147668 8
1.1777368 -0.91288799 0.28964809 77
1.1190557 -0.86771595 -0.074212395 12
1.1733329 -0.9101302 0.34282541 75
1.137496 -0.88265026 -0.025131466 13
1.1750576 -0.91212529 0.39858136 73
1.0824664 -0.84237373 -0.36752307 5
1.1581991 -0.90163338 0.025620133 47
1.0977829 -0.85490841 -0.32123014 20
1.1675026 -0.90953064 0.0775619 67
1.1460763 -0.89283872 -0.28239733 1
1.1566401 -0.90139276 0.12829326 54
1.370944 -1.0687888 -0.2753247 9
1.1693091 -0.91192216 0.18207282 14
1.3945282 -1.0879577 -0.21717119 8
1.1585975 -0.90421897 0.23277451 88
1.3617678 -1.0627817 -0.15112805 8
1.165258 -0.9097445 0.28735834 75
1.1223165 -0.87653416 -0.07463108 12
1.1701487 -0.91422045 0.34282541 77
1.1328325 -0.8853842 -0.025096562 13
1.165779 -0.91146189 0.39651078 73
1.0719172 -0.84018838 -0.36493486 4
1.1597657 -0.90937239 0.025724847 95
1.0886587 -0.85392427 -0.31943053 20
1.1596068 -0.90990162 0.07724788 12
1.0904387 -0.85562795 -0.26942232 1
1.1691591 -0.91772664 0.13003637 11
1.3501148 -1.060148 -0.27188313 10
1.1583134 -0.90986705 0.18085413 8
1.3969654 -1.097725 -0.21814615 8
1.1616462 -0.91314089 0.23402599 91
1.3690144 -1.0761478 -0.15234824 6
1.1528158 -0.90652514 0.28506866 84
1.1098312 -0.8730374 -0.074003048 12
1.1746075 -0.92432505 0.34507492 79
1.1454475 -0.90170205 -0.025445608 14
1.1656257 -0.91791588 0.39754605 73
1.0689778 -0.84392488 -0.36493486 4
1.1565843 -0.91341519 0.025724847 100
1.0734384 -0.84805471 -0.3158313 22
1.1485887 -0.90775186 0.076724522 12
1.0812842 -0.85455978 -0.26789585 2
1.1628226 -0.91933089 0.12968774 8
1.3448565 -1.063629 -0.27157027 11
1.156687 -0.91513646 0.18109787 6
1.3837857 -1.095203 -0.21668372 8
1.1584517 -0.91719019 0.23402599 91
1.3668116 -1.0821567 -0.15252255 5
1.1619565 -0.92029518 0.28812161 77
1.103646 -0.87442553 -0.073793709 12
1.1637379 -0.92236716 0.34282541 75
1.1422931 -0.9056949 -0.025445608 18
1.174523 -0.93158317 0.40168718 73
1.0614892 -0.84404409 -0.36338195 9
1.1486939 -0.91371244 0.025620133 100
1.0643719 -0.84694308 -0.31403169 23
1.1438504 -0.91051179 0.076619849 12
1.0598623 -0.84365672 -0.26331642 4
1.1549306 -0.91966099 0.12916481 8
1.3241396 -1.0547785 -0.26812872 11
1.155038 -0.92040563 0.18134159 8
1.3799543 -1.1000266 -0.21668372 8
1.1490653 -0.91630203 0.23277451 93
1.3739301 -1.0956166 -0.15374273 5
1.1602718 -0.92556983 0.28850323 73
1.0974648 -0.875781 -0.073584363 12
1.1528962 -0.92034483 0.3405759 79
1.1328744 -0.90468544 -0.025305988 16
1.1742828 -0.93808895 0.40272245 73
1.0449654 -0.8368758 -0.35872319 13
1.1486187 -0.92021722 0.025689943 100
1.0629299 -0.85187197 -0.31448162 23
1.1375487 -0.9120003 0.076410502 13
1.056911 -0.84735113 -0.26331642 5
1.1454961 -0.91870058 0.12846756 8
1.3235314 -1.0618664 -0.26875445 12
1.1518182 -0.9244318 0.18134159 8
1.3853937 -1.1122935 -0.21814615 8
1.1427795 -0.91783351 0.23214878 93
1.3405826 -1.0767009 -0.15043081 5
1.1585644 -0.93084389 0.28888482 75
1.1068552 -0.88961631 -0.074421734 12
1.1511952 -0.92558467 0.3410258 77
1.132826 -0.91114098 -0.0253758 15
1.1589599 -0.93249398 0.39858136 73
1.0315121 -0.83202821 -0.35509977 31
1.136062 -0.91668642 0.025480513 100
1.0599498 -0.85557711 -0.31448162 24
1.1500593 -0.9283123 0.077457219 15
1.0508916 -0.8485685 -0.26255319 5
1.1391824 -0.92018962 0.12811893 8
1.2936969 -1.0453738 -0.26343569 12
1.1516719 -0.93094265 0.18182908 9
1.390764 -1.1246117 -0.21960858 8
1.1397296 -0.92161804 0.23214878 97
1.1974032 -0.96860021 -0.13474278 4
1.1446249 -0.92623752 0.28621352 82
1.1006384 -0.89096129 -0.074212395 12
1.1540151 -0.93450302 0.34282541 75
1.12669 -0.91237563 -0.025305988 15
1.1498568 -0.93146801 0.39651078 73
1.0375981 -0.84293234 -0.35820559 49
1.133016 -0.92044872 0.025480513 100
1.0465205 -0.85048413 -0.31133229 24
1.1468118 -0.93232119 0.077457219 15
1.0509696 -0.85470909 -0.26331642 5
1.1359636 -0.92416042 0.12811893 8
1.2886909 -1.0484114 -0.2631228 12
1.1393405 -0.92723835 0.18036664 8
1.3962637 -1.1367373 -0.22107102 8
1.1426324 -0.9305805 0.23340026 97
0.98085308 -0.79910934 -0.11068779 4
1.1339368 -0.92382795 0.28430542 86
1.0945812 -0.89208263 -0.074003048 12
1.1554412 -0.94201899 0.34417513 79
1.129697 -0.92135841 -0.025445608 14
1.1540827 -0.94158226 0.39909899 76
1.0333018 -0.84514552 -0.35768795 50
1.1267008 -0.92186558 0.025410704 56
1.0375133 -0.84919482 -0.30953267 24
1.1389146 -0.93252271 0.077143207 45
1.0511675 -0.86067694 -0.26407966 5
1.1359754 -0.9304474 0.12846756 8
1.2727997 -1.0428878 -0.26061985 12
1.1330264 -0.92869306 0.17987917 8
1.3830769 -1.1340522 -0.21960858 8
1.139377 -0.93456346 0.23340026 95
0.87036479 -0.71390873 -0.098485984 4
1.1428468 -0.93774325 0.28735834 75
1.0821979 -0.88829494 -0.073375016 12
1.1536518 -0.94728315 0.34462503 89
1.124929 -0.92402685 -0.025410704 14
1.1522815 -0.94683158 0.3996166 73
1.0303454 -0.84874725 -0.35768795 42
1.1389083 -0.9385097 0.025759753 15
1.0255206 -0.84537399 -0.30683327 24
1.126407 -0.92886841 0.076515175 100
1.0436127 -0.8605938 -0.2629348 7
1.1357944 -0.93694276 0.12881619 8
1.2767695 -1.0536108 -0.2621842 12
1.1359012 -0.93769735 0.18085413 8
1.3821712 -1.1414013 -0.22009605 8
1.1300161 -0.9335025 0.23214878 95
0.85865122 -0.70932889 -0.097440116 4
1.1365398 -0.93922561 0.28659514 77
1.0883268 -0.89970237 -0.074003048 12
1.1473347 -0.94882059 0.34372523 91
1.1139926 -0.92157483 -0.02523618 15
1.1489694 -0.95084798 0.3996166 73
1.0214292 -0.84740478 -0.35561737 29
1.1387029 -0.94503361 0.025829561 12
1.028561 -0.85392773 -0.30863288 23
1.1262307 -0.93534684 0.076724522 92
1.0330508 -0.85795981 -0.26102671 9
1.1263869 -0.93580884 0.12811893 8
1.2670071 -1.0530107 -0.26093271 12
1.135674 -0.94419473 0.18134159 8
1.3842834 -1.1512964 -0.22107102 8
1.1206765 -0.93238771 0.23089729 95
0.86076486 -0.71614474 -0.097963057 5
1.1332544 -0.94318712 0.28659514 77
1.0882494 -0.90605181 -0.074212395 12
1.1410209 -0.95032543 0.34282541 89
1.1046236 -0.92033768 -0.025096562 18
1.1367395 -0.94743162 0.39651078 73
1.0080876 -0.84229422 -0.35199389 25
1.124657 -0.94002569 0.025585229 12
1.0210888 -0.85376281 -0.30728316 24
1.1260228 -0.94183522 0.076933861 92
1.0360733 -0.86659902 -0.26255319 9
1.1170013 -0.93462062 0.12742169 8
1.2572646 -1.0523554 -0.25968125 12
1.1354153 -0.95070213 0.18182908 8
1.3893869 -1.1637694 -0.22253343 8
1.1234715 -0.9413687 0.23214878 95
0.84146106 -0.70506912 -0.096045621 5
1.1299552 -0.94713712 0.28659514 77
1.0820192 -0.90727848 -0.074003048 12
1.1406828 -0.95680726 0.34372523 91
1.1044679 -0.92675859 -0.02516637 18
1.134905 -0.95263588 0.39702842 76
1.0036632 -0.8445642 -0.35147628 22
1.118309 -0.94137013 0.025515417 13
1.0017055 -0.84351432 -0.30233425 23
1.1227283 -0.94576007 0.076933861 92
1.0345435 -0.87147516 -0.2629348 9
1.1183028 -0.94236577 0.12794463 8
1.2520733 -1.0554645 -0.25936839 12
1.1229844 -0.94698143 0.18036664 8
1.3853163 -1.1686121 -0.22253343 8
1.1262174 -0.9503805 0.23340026 100
0.84051752 -0.70928711 -0.096219942 6
1.1206414 -0.94601005 0.28506866 86
1.0727417 -0.90589547 -0.073584363 12
1.1432905 -0.96581334 0.34552482 87
1.1073357 -0.93577117 -0.025305988 16
1.1315727 -0.95659167 0.39702842 71
0.99776143 -0.8455646 -0.35044101 21
1.1211176 -0.95044059 0.025655037 14
0.99578249 -0.84448487 -0.30143443 23
1.1118052 -0.94321293 0.076410502 89
1.0285012 -0.87254095 -0.26217157 7
1.1180447 -0.94884205 0.12829326 8
1.2483814 -1.0598286 -0.25936839 12
1.1196721 -0.95089555 0.18036664 8
1.3872799 -1.1785817 -0.2235084 8
1.1228931 -0.95430607 0.23340026 95
0.83955467 -0.713507 -0.096394248 8
1.1233153 -0.95500255 0.28659514 79
1.0665302 -0.9070465 -0.073375016 12
1.1339753 -0.96474731 0.34372523 91
1.1040624 -0.93963075 -0.025305988 16
1.1385233 -0.96930212 0.4006519 76
0.99186486 -0.84653401 -0.34940571 21
1.1177932 -0.95434815 0.025655037 12
0.99282855 -0.8479557 -0.30143443 22
1.1039505 -0.943196 0.07609649 96
1.0239564 -0.87485051 -0.26178995 9
1.1177551 -0.95532799 0.12864187 8
1.2476771 -1.0667471 -0.25999412 12
1.1118202 -0.95092738 0.17963544 8
1.3861741 -1.1859981 -0.22399586 8
1.1105505 -0.95051289 0.23152302 95
0.83705896 -0.71643323 -0.096394248 10
1.1229576 -0.96147156 0.28735834 81
1.0663913 -0.91336238 -0.073584363 12
1.1217216 -0.96109217 0.3410258 91
1.0977392 -0.94087625 -0.02523618 18
1.1336665 -0.972013 0.40013427 73
0.98450881 -0.8462134 -0.34785283 19
1.1174877 -0.96085167 0.025724847 12
0.98690778 -0.84887469 -0.30053464 21
1.1082212 -0.95355725 0.076619849 89
1.0164318 -0.874578 -0.26064509 7
1.1113935 -0.95662421 0.12829326 8
1.2454427 -1.0723847 -0.26030698 12
1.1160145 -0.96128023 0.18085413 8
1.3850334 -1.1934212 -0.22448336 8
1.1042334 -0.95180416 0.23089729 97
0.82247996 -0.7089442 -0.094999753 11
1.1225682 -0.96794969 0.28812161 79
1.0692462 -0.92229736 -0.074003048 12
1.1272124 -0.97264045 0.34372523 91
1.0944483 -0.94470233 -0.02523618 16
1.1244179 -0.97091401 0.39806372 73
0.96694255 -0.8370012 -0.34267643 14
1.1111033 -0.96212858 0.025655037 12
0.98099273 -0.84976256 -0.29963481 19
1.1079048 -0.96003562 0.076829188 89
1.0163403 -0.88069201 -0.26140836 9
1.1050364 -0.95788789 0.12794463 8
1.2401993 -1.0754316 -0.25999412 12
1.1126522 -0.96517003 0.18085413 8
1.3868563 -1.2034526 -0.22545831 8
1.1068712 -0.9608326 0.23214878 93
0.81699115 -0.70919877 -0.09465114 11
1.1132532 -0.96671331 0.28659514 79
1.0690358 -0.92864376 -0.074212395 12
1.1267524 -0.97912556 0.34462503 91
1.0881256 -0.94589305 -0.02516637 18
1.1122754 -0.96722704 0.39495787 73
0.95236528 -0.83021587 -0.33853534 14
1.1002024 -0.95942974 0.025480513 12
0.97655207 -0.85190058 -0.29918492 19
1.1075566 -0.96652359 0.077038541 87
1.0162183 -0.88681608 -0.26217157 7
1.1016859 -0.9617393 0.12794463 8
1.2245347 -1.0693592 -0.25749114 12
1.1032964 -0.96382397 0.17987917 8
1.4005841 -1.2239614 -0.22838317 8
1.1035105 -0.96469051 0.23214878 97
0.81451058 -0.71204633 -0.09465114 11
1.1039606 -0.96542382 0.28506866 91
1.0567683 -0.92447931 -0.073584363 11
1.1262606 -0.98561949 0.34552482 87
1.0908355 -0.95495439 -0.025305988 18
1.1132523 -0.97492194 0.39651078 76
0.95236492 -0.83608419 -0.33957058 12
1.1043594 -0.96986192 0.025655037 14
0.96186024 -0.84501481 -0.29558569 19
1.0951744 -0.96247298 0.076410502 81
1.0219647 -0.89813393 -0.26446128 9
1.1013148 -0.9682101 0.12829326 8
1.2296947 -1.0814544 -0.25936839 12
1.0984348 -0.96635813 0.17963544 9
1.3814013 -1.2157282 -0.22594579 8
1.1001364 -0.96853662 0.23214878 97
0.81202012 -0.71488518 -0.09465114 11
1.1064773 -0.97446167 0.28659514 77
1.0565321 -0.93080312 -0.073793709 11
1.1169654 -0.98439109 0.34372523 91
1.0904956 -0.96140105 -0.0253758 18
1.1170868 -0.98519093 0.39909899 73
0.95957202 -0.8483606 -0.34319407 10
1.105461 -0.97768527 0.025759753 19
0.95306671 -0.84320223 -0.29378611 12
1.0903125 -0.96496636 0.076305829 92
1.0070621 -0.89128667 -0.26140836 9
1.094945 -0.96940702 0.12794463 8
1.2244334 -1.0844306 -0.25905553 12
1.0965407 -0.97150296 0.17987917 8
1.3801204 -1.223176 -0.22643325 8
1.0937927 -0.96974975 0.23152302 93
0.81846476 -0.72564572 -0.095697001 11
1.1030689 -0.9783181 0.28659514 81
1.0532767 -0.93448544 -0.073793709 11
1.1018624 -0.97793537 0.34012601 93
1.0781606 -0.95723581 -0.02516637 18
1.1194186 -0.99421585 0.40116954 81
0.94217628 -0.83885872 -0.3380177 5
1.105028 -0.98419815 0.025829561 22
0.95011759 -0.84652394 -0.29378611 11
1.0930715 -0.97389126 0.076724522 92
0.9995479 -0.89087766 -0.26026347 9
1.0915544 -0.97322321 0.12794463 8
1.2265373 -1.0939574 -0.26030698 12
1.0990679 -0.98061091 0.18085413 8
1.3906523 -1.2412045 -0.22887065 8
1.0876234 -0.97074091 0.23089729 95
0.79363364 -0.70859402 -0.093082331 12
1.1025758 -0.98477817 0.28735834 81
1.0500083 -0.93815631 -0.073793709 12
1.1071599 -0.98956752 0.34282541 93
1.0719985 -0.95814067 -0.025096562 19
1.100274 -0.98375839 0.39547554 71
0.93061233 -0.83440447 -0.33491185 11
